# 3D point list with one line of data per point:
#   POINT3D_ID, X, Y, Z, R, G, B, ERROR, TRACK[] as (IMAGE_ID, POINT2D_IDX)
# Number of points: 258, mean track length: 13.61609287429944
993 1.5588294099883528 1.3776300504598584 1.2083095320024275 141 145 141 0.7239571109207189 25 230 26 234 13 82 14 62 16 262 15 290 29 206 2 294 3 130
1075 -1.0859661441514439 1.7086852302392961 0.13584987156496831 226 214 200 0.39651781657315199 25 409 26 421 13 261 27 305 28 277 14 245 16 441 15 473 29 397 30 373 23 257 24 253 17 317 18 309 40 165 39 165 38 153 37 161 2 489 1 473 5 409 6 385 4 197 3 217
994 1.7959548096276148 1.3511125522834286 0.92482930137871633 153 159 158 0.51824720101863442 25 231 26 235
1076 -1.0861122939743268 1.8668890675064254 0.21095841592852083 245 248 253 0.89335363155213765 25 410 26 422 27 306 13 262 28 278 14 246 16 442 15 474 29 398 30 374 23 258 24 254 17 318 18 310 40 166 39 166 38 154 37 162 2 490 1 474 5 410 6 386 4 198 3 218
995 0.33447087406086656 0.79433248525981914 0.14152108922530385 227 232 236 0.4227190415340828 25 280 26 292 13 132 27 224 28 196 14 116 16 312 15 344 29 268 30 244 2 360 1 344 5 280 6 256 4 116 3 136
1077 -0.9886110724592152 1.9285264723230688 0.081555494161622083 242 245 250 0.64370672424356123 25 411 26 423 13 263 27 307 28 279 14 247 16 443 15 475 29 399 30 375 24 255 17 319 18 311 40 167 39 167 38 155 37 163 2 491 1 475 5 411 6 387 4 199 3 219
996 0.2366075625237786 0.73025303497788618 0.27322032119572559 230 234 243 0.69408005335987255 25 281 26 293 13 133 27 225 28 197 14 117 16 313 15 345 29 269 30 245 2 361 1 345 5 281 6 257 4 117 3 137
1078 -1.2911800545986942 1.5714706873552933 0.41317211202925103 246 225 189 0.53442525305657684 25 412 26 424 27 308 13 264 28 280 14 248 16 444 15 476 29 400 30 376 23 260 24 256 17 320 18 312 40 168 39 168 38 156 37 164 2 492 1 476 5 412 6 388 4 200 3 220
997 0.23630544399803557 0.88967346133317571 0.34994107534765634 168 175 183 0.92887438075316031 25 282 26 294 27 226 28 198 14 118 13 134 16 314 15 346 29 270 30 246 2 362 1 346 5 282 6 258 4 118 3 138
1079 -1.3889409535062429 1.5086648393323352 0.54442798209052401 246 223 189 0.70213390163689071 25 413 26 425 13 265 27 309 28 281 14 249 16 445 15 477 29 401 30 377 23 261 24 257 17 321 18 313 40 169 39 169 38 157 37 165 2 493 1 477 5 413 6 389 4 201 3 221
998 0.33350522867757015 0.95296724473774697 0.21951845243550602 150 157 163 0.8884309384410326 25 283 26 295 13 135 27 227 28 199 14 119 16 315 15 347 29 271 30 247 2 363 1 347 5 283 6 259 4 119 3 139
1045 -0.83790127114146828 1.2970856690856265 -0.48112408059976175 243 220 185 0.80612405463415981 25 379 26 391 13 231 27 275 28 247 14 215 16 411 15 443 29 367 30 343 23 227 24 223 17 287 18 287 40 135 39 135 38 123 37 131 2 459 1 443 5 379 6 355 4 167 3 187
964 2.2228197402807917 1.3271561062562953 0.073946855141269918 183 184 189 0.7145012544356143 25 191 26 191 27 191 16 195 15 203 2 191 1 203
1104 -2.5951167974254457 1.2428965688220974 1.4795288631540524 192 187 184 0.53296770693160755 35 522 26 542 13 402 27 398 28 370 14 382 23 350 24 346 36 506 2 622 11 562 1 602 12 546 4 290 3 310
1023 0.38790856344200264 1.5631021192149586 0.42978011693537282 151 154 161 0.57395577971549749 25 309 26 321 13 161 27 253 28 225 14 145 16 341 15 373 2 389 1 373 5 309 6 285 4 145 3 165
301 -1.341655218851008 0.96366241582257306 2.2742367937534587 141 144 149 0.44126879431846244 35 580 25 576 26 612 13 508 27 484 28 472 14 488 23 408 24 404 33 340 34 352 36 564 22 400 21 400 2 696 11 620 1 664 12 604 4 328
2658 2.4048143957351842 1.4691762412405056 -0.21660805333369793 106 94 88 0.4038561849040711 35 183 24 75 33 95 34 123 36 187 32 123 20 171 19 143 11 251 12 251 9 19 10 39
896 0.056028578635681121 2.7035391890219915 -1.4925416283127229 42 48 46 0.31390958464521479 25 79 26 79 2 63 11 35 1 75 12 35
1047 -1.2374369707870176 0.87608455678049213 -0.020548795737604944 202 196 198 0.62537173353732367 25 381 26 393 13 233 27 277 28 249 14 217 16 413 15 445 29 369 30 345 23 229 24 225 17 289 18 289 40 137 39 137 38 125 37 133 2 461 1 445 5 381 6 357 4 169 3 189
966 2.2777857953895628 1.4501021751117635 0.041361441140302456 175 178 183 0.59482542349544043 25 193 26 193 16 197 15 209 2 197 1 209
1106 -0.68551938796777701 0.8532314504151649 1.8763036396005757 172 172 180 0.68555013539303922 25 532 26 564 13 448 27 436 28 412 14 428 16 540 15 560 29 568 30 556 5 572 6 564 4 312 3 328
1025 0.4841283052631461 1.7864996787859448 0.37589286542515554 175 173 174 0.78909738979649835 25 311 26 323 27 255 13 163 28 227 14 147 16 343 15 375 29 299 30 275 2 391 1 375 5 311 6 287 4 147 3 167
1051 -0.78374230723057636 1.4194640733537864 -0.51091388124397619 240 216 174 0.558285940679625 25 385 26 397 13 237 27 281 28 253 14 221 16 417 15 449 29 373 30 349 23 233 24 229 40 141 39 141 38 129 37 137 2 465 1 449 5 385 6 361 4 173 3 193
970 2.1264465147750529 1.5929492369400224 0.36571929405187148 184 187 194 0.32715705882279611 25 197 26 197 16 201 15 217 2 209 1 221
2652 0.2845739214240815 1.3571355752100012 1.9982429148276324 0 0 0 1.7816307182250828 5 739 6 735 36 1063
295 -0.97285857372618456 0.7644851439411926 2.4518215416546609 193 196 201 0.80857585264809095 35 574 25 570 26 606 13 502 27 478 28 466 14 482 23 402 24 398 33 334 34 346 36 558 22 394 21 394 2 690 11 614 1 658 12 598
1029 0.18312522618092497 1.5850134293715128 0.78308529102826341 173 172 180 0.80841236860528609 25 315 26 327 13 167 27 259 28 231 14 151 16 347 15 379 29 303 30 279 2 395 1 379 5 315 6 291 4 151 3 171
307 -0.74563653546644293 0.94460076352970856 2.7090617965544732 166 166 166 0.81093612133234771 35 586 25 582 26 618 13 514 27 490 28 478 14 494 23 414 24 410 33 346 34 358 36 570 22 406 21 406 2 702 11 626 1 670 12 610 9 222
2664 -2.1605216930947542 1.1546818986781215 1.6603390399298892 225 228 236 0.53306736715725078 6 479 4 247 3 267 13 359 27 355 28 327 14 339 16 523 29 495 30 471 5 495
902 -0.023178952804048959 2.8153630410435433 -1.5008782991035869 161 206 240 0.62554353631373771 25 85 26 85 2 69 11 41 1 81 12 41
1054 -0.98851986949498027 1.2846594013287604 -0.23509977056607365 243 222 191 0.71181276378031821 25 388 26 400 13 240 27 284 28 256 14 224 16 420 15 452 29 376 30 352 23 236 24 232 17 296 40 144 39 144 38 132 37 140 2 468 1 452 5 388 6 364 4 176 3 196
973 2.7724460169138854 1.0137813419336572 -0.30492489902892927 170 173 180 0.63609219231533232 25 205 26 205 36 133 2 225 11 197 1 237 12 197
2655 0.33925878524492498 0.48598759196062252 3.3159411889589387 0 0 0 0.59611609621020234 33 436 34 440
298 -0.51641672291626461 0.47635983845776969 2.6490049266914348 154 155 160 0.8661530736153672 35 577 25 573 26 609 13 505 27 481 28 469 14 485 23 405 24 401 33 337 34 349 36 561 22 397 21 397 2 693 11 617 1 661 12 601 9 217
1032 -0.21753094343061477 1.3214139725042999 1.3226529600016905 161 168 174 0.47066782827247444 25 318 26 330 13 170 27 262 28 234 14 154 16 350 15 382 29 306 30 282 2 398 1 382 5 318 6 294 4 154 3 174
310 -0.026321866412600297 -0.40063291526829442 2.5814470208533224 162 159 168 0.69578745086983929 35 597 25 585 26 621 13 529 14 533 23 417 24 413 33 393 34 397 36 585 22 457 21 457 2 705 11 637 1 673 12 617 9 237 10 233
905 1.5066494575706642 1.5693463221702335 -1.4369704687334328 19 19 19 0.36578923387349971 25 88 26 88 27 96 16 96 15 96 2 76 1 88
1084 -0.93427788045883109 2.2107524438754935 0.12902449152157899 183 177 179 0.70832199887778213 25 418 26 430 13 270 27 314 28 286 14 254 16 450 15 482 29 406 30 382 23 266 24 262 17 326 40 174 39 174 38 162 37 170 2 498 1 482 5 418 6 394 4 206 3 226
1003 0.48539511693657877 1.138624742438519 0.058242051244734312 174 174 176 0.43915894467611072 25 288 26 300 13 140 27 232 28 204 14 124 16 320 15 352 29 276 30 252 2 368 1 352 5 288 6 264 4 124 3 144
1056 -1.5259500000126565 1.5162128316785721 0.12342614476559025 245 222 189 0.79570253440487781 25 390 26 402
975 2.3994619021794974 1.3669931115433882 -0.40875163753490484 205 206 210 0.3276057730737254 25 212 26 212 24 56 36 140 2 232 11 204 1 244 12 204
2657 0.15743422089543896 -0.015804973492120764 2.8093069482454194 74 67 68 0.41703872127272473 35 654 33 454 34 458 32 598 22 518 21 518 31 554 17 434 8 670 7 654 9 298 10 294
300 -0.65907816262933583 0.67345162843917183 2.6377367361145083 195 198 204 0.87150534097089782 35 579 25 575 26 611 13 507 27 483 28 471 14 487 23 407 24 403 33 339 34 351 36 563 22 399 21 399 2 695 11 619 1 663 12 603 9 219
1034 0.33476854867930417 1.7738194064073161 0.62292844304003936 184 184 185 0.42796254466155431 25 320 26 332 13 172 27 264 28 236 14 156 16 352 15 384 29 308 30 284 2 400 1 384 5 320 6 296 4 156 3 176
312 -0.16897902132306467 -0.2022488529044093 2.5703805170253262 138 138 150 0.90527164127295812 35 599 25 587 26 623 13 531 14 535 23 419 24 415 33 395 34 399 36 587 22 459 21 459 2 707 11 639 1 675 12 619 9 239 10 235
907 1.4085991758516274 1.6635030292034119 -1.2270238685381964 21 21 19 0.4329508357148843 25 90 26 90 27 98 16 98 15 98 2 78 1 90
1057 -0.98862470791502477 1.4421140506299346 -0.15819684084549063 247 221 185 0.45607488017095171 25 391 26 403 13 243 27 287 28 259 14 227 16 423 15 455 29 379 23 239 24 235 17 299 40 147 39 147 38 135 37 143 2 471 1 455 5 391 6 367 4 179 3 199
976 2.5463750672205077 1.3236581599429755 -0.32082062465230882 175 175 177 0.30814065029725085 25 213 26 213 24 57 36 141 2 233 11 205 1 245 12 205
1035 0.23851888028090895 1.7092857206262719 0.7537109976498032 178 181 188 0.786932186088527 25 321 26 333 13 173 27 265 28 237 14 157 16 353 15 385 29 309 30 285 2 401 1 385 5 321 6 297 4 157 3 177
313 0.28229555803783718 -0.49147432556391557 2.7642862776686012 125 122 133 0.61528804411349813 35 600 25 588 26 624 23 420 24 416 33 396 34 400 36 588 22 460 21 460 2 708 11 640 1 676 12 620 9 240 10 236
908 1.5061829640657858 1.7280341967657096 -1.3596412759254752 211 211 213 0.68069623009641245 25 91 26 91 27 99 16 99 15 99 2 79 1 91
1087 -1.2349626362641579 1.8541798274749901 0.46030522946319929 168 165 165 0.77914121040881656 25 421 26 433 13 273 27 317 28 289 14 257 16 453 15 485 29 409 23 269 24 265 17 329 40 177 39 177 38 165 37 173 2 501 1 485 5 421 6 397 4 209 3 229
1006 0.485272115029938 1.2976466244257496 0.13585560896701734 184 182 185 0.48844143871296108 25 291 26 303 13 143 27 235 28 207 14 127 16 323 15 355 29 279 30 255 2 371 1 355 5 291 6 267 4 127 3 147
1046 -1.1389691181434805 0.93972625023876322 -0.15246459247139607 187 182 188 0.44009941540113345 25 380 26 392 13 232 27 276 28 248 14 216 16 412 15 444 29 368 30 344 23 228 24 224 17 288 18 288 40 136 39 136 38 124 37 132 2 460 1 444 5 380 6 356 4 168 3 188
965 2.3777694625924251 1.5138957245266444 -0.088550718592944319 182 182 184 1.2034726338394892 25 192 26 192 16 196 15 208 2 196 1 208
1105 -2.7419108232423102 1.2847679034723389 1.3999002359125539 188 180 178 0.89876111634487343 35 523 26 543 13 403 27 399 28 371 14 383 23 351 24 347 36 507 2 623 11 563 1 603 12 547 4 291 3 311
1024 0.38810370586647985 1.721003944799723 0.50725768102974911 172 172 173 0.64668668868081247 25 310 26 322 27 254 13 162 28 226 14 146 16 342 15 374 29 298 30 274 2 390 1 374 5 310 6 286 4 146 3 166
302 -1.1976611678975895 0.92295079913176858 2.3603228638784 156 160 163 0.95848983650067476 35 581 25 577 26 613 13 509 27 485 28 473 14 489 23 409 24 405 33 341 34 353 36 565 22 401 21 401 2 697 11 621 1 665 12 605 4 329
897 0.51224547714883295 2.4106093254543146 -1.296622422316543 178 200 221 0.37692346235308555 25 80 26 80 2 64 11 36 1 76 12 36
1059 -1.3893443638174541 1.0196855111883256 0.30448316704277062 197 191 193 0.53277318974726962 25 393 26 405 13 245 27 289 28 261 14 229 16 425 15 457 29 381 30 357 23 241 24 237 17 301 18 297 40 149 39 149 38 137 37 145 2 473 1 457 5 393 6 369 4 181 3 201
978 2.3995376721043562 1.5259424501520749 -0.33047198424201191 185 184 189 0.48461808382219812 25 215 26 215 24 59 36 143 2 235 11 207 1 247 12 207
1037 0.33354230495538606 1.9323168502256816 0.70054173258498043 170 168 169 0.49848072160789431 25 323 26 335 13 175 27 267 28 239 14 159 16 355 15 387 29 311 30 287 2 403 1 387 5 323 6 299 4 159 3 179
315 0.42390145546787539 -0.37968923696676277 2.92636763799519 126 118 129 0.66055144881824746 35 602 25 590 26 626 23 422 24 418 33 398 34 402 36 590 22 462 21 462 2 710 11 642 1 678 12 622 9 242 10 238
910 1.1061514009243241 1.3053056049628204 -0.89800659458984378 224 228 237 0.58156580031093308 25 93 26 93 13 25 27 101 28 97 16 101 15 101 2 81 1 93
1089 -1.1420984539018757 2.0785291633542955 0.40643370411079188 168 167 172 0.83928641009051652 25 423 26 435 13 275 27 319 28 291 14 259 16 455 15 487 29 411 30 387 23 271 24 267 17 331 18 323 40 179 39 179 38 167 37 175 2 503 1 487 5 423 6 399 4 211 3 231
1008 0.085741895485407449 0.87445259776916329 0.59627018059606629 153 156 162 0.38278668268205818 25 293 26 305 13 145 27 237 28 209 14 129 16 325 15 357 29 281 2 373 1 357 5 293 6 269 4 129 3 149
1061 -1.2916376280537016 1.2413734919120594 0.25011079095925626 242 225 199 0.62760344900370291 25 395 26 407 13 247 27 291 28 263 14 231 16 427 15 459 29 383 30 359 23 243 24 239 17 303 18 299 40 151 39 151 38 139 37 147 2 475 1 459 5 395 6 371 4 183 3 203
980 1.4081657695856651 0.385720949498496 0.97449914528890536 137 140 145 1.0257464148185065 25 217 27 205 13 53 28 177 14 33 16 233 15 261 29 185 2 269 1 281
2662 -2.6596683067954063 1.1140972195027101 1.3893539804518349 0 0 0 0.29410227007436868 27 397 28 369
305 -0.88902794438769017 0.83057482448553466 2.5449345993625738 171 177 177 0.35954637058388289 35 584 25 580 26 616 13 512 27 488 28 476 14 492 23 412 24 408 33 344 34 356 36 568 22 404 21 404 2 700 11 624 1 668 12 608 9 220
1039 -0.064435796496792097 1.5098015406424243 1.1607561037253606 176 173 182 0.70250907278292796 25 325 26 337 13 177 27 269 28 241 14 161 16 357 15 389 29 313 30 289 2 405 1 389 5 325 6 301 4 161 3 181
1049 -1.1397828214295087 1.0979921954314897 -0.075001673717466341 243 214 182 0.6502985637827583 25 383 26 395 13 235 27 279 28 251 14 219 16 415 15 447 29 371 30 347 23 231 24 227 17 291 18 291 40 139 39 139 38 127 37 135 2 463 1 447 5 383 6 359 4 171 3 191
968 2.3755110795839842 1.6719811593699883 -0.011300117107742473 178 178 180 0.38668722098444469 25 195 26 195 16 199 15 211 2 199 1 211
1108 -0.78405759243063089 0.9466531701853389 2.0858016700066235 182 182 190 0.64819605852160389 25 534 26 566 13 450 27 438 28 414 14 430 16 542 15 562 29 570 30 558 5 574 6 566 4 314 3 330
2650 -2.3975120660213798 0.3573497845386242 1.7189516974054471 0 0 0 0.11790426764170527 1 548 2 564
293 -1.1155215362868924 0.65070487255966136 2.2892660504211131 166 167 169 0.37598160180402468 35 572 25 568 26 604 13 500 27 476 28 464 14 480 23 400 24 396 33 332 34 344 36 556 22 392 21 392 2 688 11 612 1 656 12 596
1027 0.08608235020226318 1.3635462046765345 0.83648693032314092 173 172 180 0.45971139437530389 25 313 26 325 13 165 27 257 28 229 14 149 16 345 15 377 29 301 30 277 2 393 1 377 5 313 6 289 4 149 3 169
900 0.51159976356012149 2.5692243394286662 -1.2186321276338621 164 164 165 0.776316286287135 25 83 26 83 2 67 11 39 1 79 12 39
318 -0.25279555976995072 -0.090289538435162756 2.5658674049716668 184 182 195 0.79715087844872801 35 605 25 593 26 629 13 533 28 485 14 537 23 425 24 421 33 401 34 405 36 593 22 465 21 465 2 713 11 645 1 681 12 625 9 245 10 241
913 1.657305274362131 1.9137709952124908 -1.5211728452475808 124 127 136 0.25713389108454071 25 96 26 96 16 104 15 104 2 84 1 96
1050 -0.68626604474620423 1.483369612581463 -0.64247193847320394 243 220 188 0.36511447357789573 25 384 26 396 13 236 27 280 28 252 14 220 16 416 15 448 29 372 30 348 23 232 24 228 17 292 40 140 39 140 38 128 37 136 2 464 1 448 5 384 6 360 4 172 3 192
969 2.2215498150379918 1.6568733132674629 0.23748560213803849 169 172 179 0.46908491266953939 25 196 26 196 15 216 2 208 1 220
1109 -0.28731694257395479 0.90874777506798654 1.6580460123112197 166 166 174 1.6278266979265692 25 535 26 567
2651 1.2941436854227593 1.8968221495616935 0.84662701211351077 0 0 0 0.003373677016094933 17 664 18 644
294 -0.97010710751992468 0.60798080886415962 2.3760131417490253 182 183 183 0.31642394465137741 35 573 25 569 26 605 13 501 27 477 28 465 14 481 23 401 24 397 33 333 34 345 36 557 22 393 21 393 2 689 11 613 1 657 12 597
1028 0.08531091496859837 1.5226345501418264 0.91253783905324415 183 180 189 0.83789827648232595 25 314 26 326 27 258 13 166 28 230 14 150 16 346 15 378 29 302 30 278 2 394 1 378 5 314 6 290 4 150 3 170
901 -0.16966992253242563 2.8580913776524728 -1.5833674911565592 52 41 45 1.097321259538645 25 84 26 84 2 68 11 40 1 80 12 40
1080 -1.3892749296514799 1.6653437019808996 0.62154341618178288 244 248 251 0.39592782425427175 25 414 26 426 13 266 27 310 28 282 14 250 16 446 15 478 29 402 30 378 23 262 17 322 18 314 40 170 39 170 38 158 37 166 2 494 1 478 5 414 6 390 4 202 3 222
999 0.032548906354503158 0.59423779185714476 0.54851676648248326 239 244 250 0.50650511094570383 25 284 26 296 13 136 27 228 28 200 14 120 16 316 15 348 29 272 30 248 2 364 1 348 5 284 6 260 4 120 3 140
1063 -0.93428419109518657 1.5634285226119635 -0.18778755703894076 244 223 188 0.6380334725778235 25 397 26 409 13 249 27 293 28 265 14 233 16 429 15 461 29 385 23 245 24 241 17 305 18 301 40 153 39 153 38 141 37 149 2 477 1 461 5 397 6 373 4 185 3 205
982 1.5057641847393137 0.60980569669663642 0.91975790272009839 176 175 180 1.083502683089161 25 219 27 207 13 55 28 179 14 35 16 235 15 263 29 187 2 271 1 283
1041 0.031854300421836443 1.7331029032966923 1.1073246168044539 170 171 176 0.54913115877064944 26 339 13 179 27 271 28 243 14 163 16 359 15 391 29 315 2 407 1 391 5 327 6 303 4 163 3 183
319 -0.25304570182341551 0.065447180714918576 2.6426504802634665 192 193 198 0.99563829099201562 35 606 25 594 26 630 13 534 28 486 14 538 23 426 24 422 33 402 34 406 36 594 22 466 21 466 2 714 11 646 1 682 12 626 9 246 10 242
914 1.560053152811018 1.8494863649690367 -1.3882042136199015 123 116 124 0.80271021754994687 25 97 26 97 16 105 15 105 2 85 1 97
1103 -2.5952689853894282 1.0870818581223127 1.4010086195962266 213 210 205 0.8437115387024835 35 521 26 541 13 401 14 381 23 349 24 345 36 505 2 621 11 561 1 601 12 545 4 289 3 309
1022 0.48588140259178764 1.6270538093951949 0.29884449241912564 145 148 154 0.60697316874411833 25 308 27 252 28 224 14 144 13 160 16 340 15 372 29 296 30 272 2 388 1 372 5 308 6 284 4 144 3 164
895 0.20264514164249647 2.6612634172413081 -1.4065698314091095 211 215 224 0.61290001523446169 25 78 26 78 2 62 11 34 1 74 12 34
1101 -2.011416019439173 1.5017891713654139 1.5774300234234002 157 166 175 0.8776581429987369 26 511 13 367 27 363 28 335 14 347 16 527 15 551 29 503 30 479 2 587 1 567 5 499 6 483 4 255 3 275
1020 0.079024822325495778 1.1334049004980322 0.89187649903900046 151 162 174 0.52151110418903524 25 306 26 318
893 0.056254187638536637 2.544956808731667 -1.5693778190937282 26 26 25 0.43316301705677035 25 76 26 76 2 60 11 32 1 72 12 32
1100 -2.1080610913415261 1.4373625811919724 1.708164535416844 179 187 198 0.57147840112606885 25 486 26 510 13 366 27 362 28 334 14 346 16 526 15 550 29 502 30 478 2 586 1 566 5 498 6 482 4 254 3 274
1019 -0.064974076198835731 1.0193814020551002 0.91974108919024888 181 180 186 0.58200674728883217 25 305 26 317 13 157 27 249 28 221 14 141 16 337 15 369 29 293 30 269 2 385 1 369 5 305 6 281 4 141 3 161
297 -0.66061121818391078 0.51706339887401032 2.5604513654516219 173 172 178 0.3553324221441681 35 576 25 572 26 608 13 504 27 480 28 468 14 484 23 404 24 400 33 336 34 348 36 560 22 396 21 396 2 692 11 616 1 660 12 600 9 216
892 0.28231079473195364 2.3925026582314857 -1.477020544008832 38 37 44 0.29614716607002695 25 75 26 75 23 35 24 19 2 55 11 27 1 67 12 27
1098 -2.0069837162745552 1.3414625753907155 1.50144805449325 194 189 193 0.88226062411282213 25 484 26 508 13 364 27 360 28 332 14 344 16 524 15 548 29 500 30 476 2 584 1 564 5 496 6 480 4 252 3 272
1017 0.33362396689732488 1.4412119787246487 0.45944277160271213 172 170 175 0.85805935870123462 25 303 26 315 13 155 27 247 28 219 14 139 16 335 15 367 29 291 30 267 2 383 1 367 5 303 6 279 4 139 3 159
890 0.43014577458239112 2.1907655669908057 -1.4670212751449481 216 219 226 0.53661813887160836 25 73 26 73 23 33 24 17 2 53 11 25 1 65 12 25
1097 -2.4646370954626788 0.95332154786371415 2.0681397906532104 156 159 166 0.86781441013968352 25 483 26 507 13 363 27 359 28 331 14 343 29 499 30 475 2 583 4 251 3 271
1016 0.23687089983985191 1.3778569017537798 0.59041367396006195 174 172 177 0.49962375979977708 25 302 26 314 13 154 27 246 28 218 14 138 16 334 15 366 29 290 30 266 2 382 1 366 5 302 6 278 4 138 3 158
889 0.2824312902675602 2.2340083328970084 -1.5546096489102896 16 16 18 0.48034514208060886 25 72 26 72 23 32 24 16 2 52 11 24 1 64 12 24
1015 0.23795385625251253 1.2184213812253188 0.51301733470237332 184 183 189 0.76654914485487835 25 301 26 313 13 153 27 245 28 217 14 137 16 333 15 365 29 289 30 265 2 381 1 365 5 301 6 277 4 137 3 157
888 -0.17129980891426436 2.5250476586249828 -1.7462770258703504 98 92 79 0.87003499419818453 25 71 26 71 2 51 11 23 1 63 12 23
1095 -2.565038382616124 0.73441779858364076 2.124077294945073 153 155 167 0.41740210314502241 25 481 26 505 13 361 27 357 28 329 14 341 29 497 30 473 2 581 4 249 3 269
1014 0.33405043269645873 1.2838684117115691 0.38182216915322414 201 199 204 0.63331085087597094 25 300 26 312 27 244 13 152 28 216 14 136 16 332 15 364 29 288 30 264 2 380 1 364 5 300 6 276 4 136 3 156
1094 -2.4634998109485262 0.79682040719527247 1.9921112310617068 159 162 171 0.63301808713859187 26 504 13 360 27 356 28 328 14 340 29 496 30 472 2 580 4 248 3 268
1013 -0.4590116836685314 0.98015008939171733 1.1616421000033752 173 167 167 1.4829537771186025 25 299 26 311
1090 -1.8578848441036442 0.70814606867827434 0.93607047302526369 196 194 199 0.42603149326787093 25 472 26 492 27 328 13 332 28 300 14 312 16 508 15 536 29 468 30 444 17 380 18 376 2 556 1 540 5 476 6 456 4 220 3 240
1009 0.085028921565964019 1.0344661730796878 0.67318179921630938 180 180 182 0.86579376850265022 25 294 26 306 27 238 28 210 14 130 13 146 16 326 15 358 29 282 30 258 2 374 1 358 5 294 6 270 4 130 3 150
1088 -1.2365920197513618 2.0118494414649502 0.53601665873392901 182 183 187 0.63315295921486447 25 422 26 434 13 274 27 318 28 290 14 258 16 454 15 486 29 410 30 386 23 270 24 266 17 330 18 322 40 178 39 178 38 166 37 174 2 502 1 486 5 422 6 398 4 210 3 230
1007 0.18358026458701629 0.93942522454966471 0.4656056739656888 156 157 161 0.82368890004416551 25 292 26 304 13 144 27 236 28 208 14 128 16 324 15 356 29 280 30 256 2 372 1 356 5 292 6 268 4 128 3 148
1083 -0.93287518092289712 2.0549684520710714 0.053172452140073233 171 166 170 0.68903289372626431 25 417 26 429 13 269 27 313 28 285 14 253 16 449 15 481 29 405 30 381 23 265 24 261 17 325 18 317 40 173 39 173 38 161 37 169 2 497 1 481 5 417 6 393 4 205 3 225
1002 0.031327479809573379 0.75368754150712347 0.62675506798443059 169 177 191 0.71520096182240178 25 287 26 299 27 231 13 139 28 203 14 123 16 319 15 351 29 275 30 251 2 367 1 351 5 287 6 263 4 123 3 143
1082 -0.56282795263264995 1.9857695430954871 -0.17322126925005712 164 158 162 0.96317016191354332 25 416 26 428
1001 -0.065408015293136834 0.68890491103875195 0.75706930333364375 179 180 182 0.75415164482093622 25 286 26 298 27 230 13 138 28 202 14 122 16 318 15 350 29 274 30 250 2 366 1 350 5 286 6 262 4 122 3 142
1044 -1.1769343557301768 1.3055716528719723 -0.2798142740726518 243 219 183 0.54398963914852816 25 378 26 390
963 2.1257901308095142 1.2638798945922778 0.20455198368402552 160 161 165 0.40271038033817447 25 190 26 190 27 190 16 194 15 202 2 190 1 202
1043 -0.93519484056284985 1.0754593157818575 -0.42732142187695632 232 214 202 0.5394912208313174 25 377 26 389 27 273 13 229 28 245 14 213 16 409 15 441 29 365 30 341 23 225 24 221 17 285 40 133 39 133 38 121 37 129 2 457 1 441 5 377 6 353 4 165 3 185
962 2.1260747704209102 1.104803650316424 0.12618898378275051 166 170 171 0.35195172433826727 25 189 26 189 27 189 16 193 15 201 2 189 1 201
1042 -0.8370992304220537 1.1391228788291139 -0.55928860991118334 240 222 202 0.40108420921709825 25 376 26 388 13 228 27 272 28 244 14 212 16 408 15 440 29 364 30 340 23 224 24 220 17 284 40 132 39 132 38 120 37 128 2 456 1 440 5 376 6 352 4 164 3 184
961 2.2229856357568232 1.1681616014302236 -0.0023968069858959842 163 164 166 0.91433680491265967 25 188 26 188 27 188 16 192 15 200 2 188 1 200
960 2.5258530772487213 1.5284961905975252 -0.33405521142836808 186 184 187 0.18245163400305275 25 187 26 187 15 199 2 187 1 199
958 2.4302451056633654 1.3053331133462467 -0.28235566351630531 171 174 181 0.32553278489290455 25 185 26 185 15 197 2 185 1 197
1038 0.032602440350863855 1.5731447866248087 1.0302980253987526 173 167 177 0.80634138358188878 25 324 13 176 27 268 28 240 14 160 16 356 15 388 29 312 30 288 2 404 1 388 5 324 6 300 4 160 3 180
957 2.5257100893941598 1.3674541649193224 -0.41168880867819324 167 167 169 1.1338405634260733 25 184 26 184 2 184 1 196
956 2.3756205190080064 1.1842636087552991 -0.2515211036809693 187 188 193 0.46049481289239408 25 183 26 183 13 51 15 195 2 179 1 191
1036 0.23705560732080885 1.86752549239892 0.83045428134499932 167 167 165 0.71072896055697043 25 322 26 334 13 174 27 266 28 238 14 158 16 354 15 386 29 310 30 286 2 402 1 386 5 322 6 298 4 158 3 178
955 2.2762399589812516 1.1197963948535883 -0.11917811301819405 173 174 178 0.77851654823522121 26 182 15 194 2 178 13 50 1 190
954 2.2766535181456349 0.96024481231814685 -0.19734898183407476 180 180 182 0.74095652935368594 25 181 26 181 15 193 13 49 2 177 1 189
953 2.3754951969561957 1.0247676653462261 -0.32971592800762839 159 158 163 0.51317843733595148 25 180 26 180 13 48 15 192 2 176 1 188
1033 -0.12046121179868338 1.384788279573594 1.1912985104780907 183 186 193 0.82522043571707848 25 319 26 331 27 263 13 171 28 235 14 155 16 351 15 383 29 307 30 283 2 399 1 383 5 319 6 295 4 155 3 175
952 2.6768965115388994 1.383780540777322 -0.65786540195519727 147 142 146 0.19886539083018603 25 179 26 179 2 175 1 187
951 2.5796301901870211 1.3196231377874867 -0.52659262856391542 174 173 178 0.34882145804105341 25 178 26 178 2 174 1 186
1031 -0.21748814073904085 1.1630883615658025 1.2452126257407863 177 177 185 0.47436266489701018 25 317 26 329 13 169 27 261 28 233 14 153 16 349 15 381 29 305 2 397 1 381 5 317 6 293 4 153 3 173
950 2.5806489059754383 1.1603363487557425 -0.6052373588024661 180 181 186 0.36627136326188814 25 177 26 177 2 173 1 185
1030 0.12061288452779938 1.1371207614009899 0.95403045204529391 181 181 188 0.74875526628216083 25 316 26 328
949 2.6780425393659804 1.224550518230664 -0.7362501589966981 174 173 178 0.23600468234925595 25 176 26 176 2 172 1 184
948 1.6861668703120112 2.2248059449893178 -0.51625954956231701 193 194 199 0.90309492868154917 25 167 26 167 36 79 2 163 11 135 1 175 12 135
947 1.8287102421329624 2.1825232892915389 -0.4312273156187415 174 172 177 0.18052667799776745 25 166 26 166 36 78 2 162 11 134 1 174 12 134
946 1.8283420321131258 2.024053867965558 -0.51035473336343662 163 162 168 0.64783738305149363 25 165 26 165 36 77 2 161 11 133 1 173 12 133
1026 0.18343675073941307 1.4270388590677319 0.70596080581929666 176 173 182 0.57025691019631986 25 312 26 324 27 256 13 164 28 228 14 148 16 344 15 376 29 300 30 276 2 392 1 376 5 312 6 288 4 148 3 168
945 1.6843657722768053 2.0659968340521009 -0.59676851803901354 195 194 200 0.28043528108715665 25 164 26 164 36 76 2 160 11 132 1 172 12 132
944 1.2036428302962559 2.5088560984572279 -0.4718011213024737 155 156 161 0.79533495135690369 25 127 26 127 13 47 27 139 28 131 14 31 16 143 15 143 2 123 1 135 3 107
943 1.1055175165468827 2.4445060413907926 -0.34075669307496415 180 185 191 0.72524783783764546 25 126 26 126 13 46 27 138 28 130 14 30 16 142 15 142 2 122 1 134 3 106
942 1.1071260220269803 2.2838673413196053 -0.4174907286732959 150 155 161 0.52797710974802448 25 125 26 125 13 45 27 137 28 129 14 29 16 141 15 141 2 121 1 133 3 105
941 1.205320266416291 2.3486330373400879 -0.54935390242610815 193 196 202 0.35034155132387745 25 124 26 124 13 44 27 136 28 128 14 28 16 140 15 140 2 120 1 132 3 104
939 0.95453503853905119 2.0955615297682293 -0.25534653081712866 172 167 176 0.47681582510283466 25 122 26 122 13 42 27 130 28 122 14 26 16 134 15 134 29 86 2 114 1 126 5 98 6 98 4 98 3 102
938 0.95425067682957787 1.9386412006829745 -0.33214440990449628 177 174 183 1.2783619000083666 25 121 26 121 13 41 27 129 28 121 14 25 16 133 15 133 29 85 30 81 2 113 1 125 5 97 6 97 4 97 3 101
1018 0.3240204239225094 0.98109896710725264 0.60773914225236914 173 175 180 1.3512416521964949 25 304 26 316
937 1.0526825507246602 2.0027004658625267 -0.4648380734335133 150 147 156 0.79424315460896255 25 120 26 120 13 40 27 128 28 120 14 24 16 132 15 132 29 84 30 80 2 112 1 124 6 96 4 96 3 100
936 1.3540047278342227 2.3611433124154435 -0.79661340281854054 200 200 208 0.80307444072906486 25 119 26 119 13 39 27 127 28 119 16 131 15 131 2 111 1 123
935 1.2569420879334658 2.2976887097145142 -0.66533919984786449 192 195 200 0.81069029597324482 25 118 26 118 27 126 13 38 28 118 16 130 15 130 2 110 1 122
934 1.2576485753272284 2.1374782531436898 -0.74163858784351577 152 153 158 0.33784908301145949 25 117 26 117 13 37 27 125 28 117 16 129 15 129 2 109 1 121
933 1.3559735229740912 2.2024991359732575 -0.87368554311819679 183 186 193 0.39385297097754612 25 116 26 116 13 36 27 124 28 116 16 128 15 128 2 108 1 120
932 1.2039177743988465 2.0165633011452857 -0.7132474664456655 146 149 156 0.66604318109205185 25 115 26 115 13 35 27 119 28 115 14 23 16 123 15 123 2 103 1 115
931 1.1055944231032471 1.9532958305486745 -0.58152823102123319 181 185 196 0.65835717972265662 25 114 26 114 27 118 13 34 28 114 14 22 16 122 15 122 2 102 1 114
930 1.1065033534460851 1.7932805948515318 -0.65838934881283739 186 190 201 0.35448828053385983 25 113 26 113 13 33 27 117 28 113 14 21 16 121 15 121 2 101 1 113
929 1.2057257483019019 1.8579499787063394 -0.7903859443118606 181 186 192 0.60868289527765451 25 112 26 112 13 32 27 116 28 112 14 20 16 120 15 120 2 100 1 112 5 92
927 1.4091499463789288 2.1513848045902622 -0.98778475935007359 158 153 160 0.36673143741089764 25 110 26 110 27 114 28 110 16 118 15 118 2 98 1 110
926 1.4097243157264907 1.993188790773269 -1.0648900073230143 175 170 177 0.48819335326133367 25 109 26 109 27 113 28 109 16 117 15 117 2 97 1 109
925 1.506941859214038 2.0585127731272501 -1.1971777081934272 166 159 166 0.34671078750977957 25 108 26 108 27 112 28 108 16 116 15 116 2 96 1 108
329 -0.16948099535928662 0.13078696963290187 2.7330764013815894 189 190 195 0.97966375936708427 35 616 25 604 26 640 13 536 28 488 14 544 23 436 24 432 33 412 34 416 36 604 22 476 21 476 2 724 11 656 1 692 12 636 9 256 10 252
924 1.0528360713568241 1.6716779594235516 -0.62749267177980095 153 148 154 0.77247888225619377 25 107 26 107 13 31 27 111 28 107 14 19 16 115 15 115 29 83 30 79 2 95 1 107 5 91 6 95 3 99
328 0.51297100671908213 -0.15770044028422739 3.0963468932277971 195 195 197 0.65854526270501657 35 615 25 603 26 639 23 435 24 431 33 411 34 415 36 603 22 475 21 475 2 723 11 655 1 691 12 635 9 255 10 251
2546 -0.08256083764442354 2.3360985092980564 -1.7446957646777734 0 0 0 0.13031670764787071 27 72 28 72
923 0.95394962631605928 1.6072641075980234 -0.49584692249004669 170 164 168 0.62903953607259111 25 106 26 106 13 30 27 110 28 106 14 18 16 114 15 114 29 82 30 78 2 94 1 106 5 90 6 94 3 98
327 0.65192452786691801 -0.20213852183284042 3.184418899916547 217 218 220 0.73189357827193202 35 614 25 602 26 638 23 434 24 430 33 410 34 414 36 602 22 474 21 474 2 722 11 654 1 690 12 634 9 254 10 250
922 0.95428064253509015 1.4491013951345115 -0.5727610658039537 171 162 165 0.73887928199985398 25 105 26 105 13 29 27 109 28 105 14 17 16 113 15 113 29 81 30 77 2 93 1 105 5 89 6 93 3 97
323 0.19652803709818537 -0.066726293665594488 2.9169236256157074 192 187 191 1.1948706174910844 35 610 25 598 26 634 14 542 23 430 24 426 33 406 34 410 36 598 22 470 21 470 2 718 11 650 1 686 12 630 9 250 10 246
918 1.2579116935273966 1.6490081035580235 -0.98170409708127071 195 190 196 0.3609256386019225 25 101 26 101 27 105 28 101 16 109 15 109 2 89 1 101
322 0.19994377582975606 -0.22440240551534466 2.8367020225883666 136 133 140 0.52689251797746917 35 609 25 597 26 633 14 541 23 429 24 425 33 405 34 409 36 597 22 469 21 469 2 717 11 649 1 685 12 629 9 249 10 245
917 1.3559166272813918 1.713471082628429 -1.1135209698138484 154 148 148 0.32313527248655544 25 100 26 100 27 104 28 100 16 108 15 108 2 88 1 100
321 0.057722331415881227 -0.17946691311371876 2.7495349415805554 136 130 140 0.92404967270224914 35 608 25 596 26 632 14 540 23 428 24 424 33 404 34 408 36 596 22 468 21 468 2 716 11 648 1 684 12 628 9 248 10 244
916 1.6568369357839781 2.0732394004190122 -1.442911925391807 141 142 146 0.16013186413091166 25 99 26 99 16 107 15 107 2 87 1 99
320 -0.39692618196109891 0.10963662560543104 2.5548103147748167 195 196 202 0.42821710496748627 35 607 25 595 26 631 13 535 28 487 14 539 23 427 24 423 33 403 34 407 36 595 22 467 21 467 2 715 11 647 1 683 12 627 9 247 10 243
915 1.5603425303997893 2.0074722605132065 -1.3106758238655098 150 145 151 0.33260737674569674 25 98 26 98 16 106 15 106 2 86 1 98
316 0.28448557509483791 -0.33509862795419509 2.8409174006181126 141 128 135 0.59417358856893854 35 603 25 591 26 627 23 423 24 419 33 399 34 403 36 591 22 463 21 463 2 711 11 643 1 679 12 623 9 243 10 239
911 1.1058795524599128 1.4640917729563163 -0.82065564738988772 186 172 169 0.37237981421533961 25 94 26 94 27 102 13 26 28 98 16 102 15 102 2 82 1 94
314 0.42602737403714469 -0.53157097196145753 2.8537630982550559 126 117 130 0.61594819864493644 35 601 25 589 26 625 23 421 24 417 33 397 34 401 36 589 22 461 21 461 2 709 11 641 1 677 12 621 9 241 10 237
909 1.2050629910607857 1.3693171972105864 -1.0301151225646026 224 228 237 0.36861896835533303 25 92 26 92 13 24 27 100 28 96 16 100 15 100 2 80 1 92
311 -0.026463342665897598 -0.24415334860004517 2.6584923254206068 129 126 135 0.66268551211183579 35 598 25 586 26 622 13 530 14 534 23 418 24 414 33 394 34 398 36 586 22 458 21 458 2 706 11 638 1 674 12 618 9 238 10 234
906 1.408416497512103 1.5057979749879655 -1.3042882339733426 216 220 223 1.1707647747781138 25 89 26 89 27 97 16 97 15 97 2 77 1 89
309 -0.17081371832045308 -0.35903460185169384 2.4926276838436441 125 127 139 0.32616059704584566 35 596 25 584 26 620 13 528 14 532 23 416 24 412 33 392 34 396 36 584 22 456 21 456 2 704 11 636 1 672 12 616 9 236 10 232
904 0.16311102626872367 2.7790201270457877 -1.5416195088796376 23 21 26 0.12185447673985855 25 87 26 87
308 -0.88858980750591721 0.98828738016344531 2.6225048467405183 184 184 186 0.35305369230766614 35 587 25 583 26 619 13 515 27 491 28 479 14 495 23 415 24 411 33 347 34 359 36 571 22 407 21 407 2 703 11 627 1 671 12 611 9 223
903 -0.023231535142331561 2.9746983175710238 -1.421579903525215 10 11 13 0.47256652191168208 25 86 2 70 11 42 1 82 12 42
304 -1.340533586571649 1.1196851811294268 2.3527051412350484 148 147 152 0.86325094219501997 35 583 25 579 26 615 13 511 27 487 28 475 14 491 23 411 24 407 33 343 34 355 36 567 22 403 21 403 2 699 11 623 1 667 12 607 4 331
899 0.65671620835620803 2.5275193559093063 -1.1335687301277437 148 138 146 0.34697928645294335 25 82 26 82 2 66 11 38 1 78 12 38
299 -0.5152651986713308 0.6321285961254508 2.7253106056892702 193 196 201 0.40057838012867603 35 578 25 574 26 610 13 506 27 482 28 470 14 486 23 406 24 402 33 338 34 350 36 562 22 398 21 398 2 694 11 618 1 662 12 602 9 218
894 0.20304951173678706 2.5022395349416375 -1.4840241258321452 215 213 234 0.34793363204749722 25 77 26 77 2 61 11 33 1 73 12 33
296 -1.1139483267762536 0.80601269380325569 2.3672952291221261 191 194 201 0.8988025758031376 35 575 25 571 26 607 13 503 27 479 28 467 14 483 23 403 24 399 33 335 34 347 36 559 22 395 21 395 2 691 11 615 1 659 12 599
891 0.42957002628900853 2.3492148799181032 -1.3891095870501668 200 211 222 0.61423587026496862 25 74 26 74 23 34 24 18 2 54 11 26 1 66 12 26
1012 -0.21803186010419265 0.8324139093316747 1.0824407161766969 179 170 171 0.6876169330003491 25 298 27 242 28 214 14 134 13 150 16 330 15 362 29 286 30 262 2 378 1 362 5 298 6 274 4 134 3 154
1011 -0.21684588496787341 0.67421927953430838 1.0051680048245899 179 182 187 0.71515533953331023 25 297 26 309 13 149 27 241 28 213 14 133 16 329 15 361 29 285 30 261 2 377 1 361 5 297 6 273 4 133 3 153
1010 -0.4065446793815472 0.80008120835230268 1.0692172673094376 171 172 174 1.1746647024868935 25 296 26 308
1005 0.38701014666911293 1.2332923687386594 0.26672164166945656 185 184 189 0.82747471201704204 25 290 26 302 27 234 13 142 28 206 14 126 16 322 15 354 29 278 2 370 1 354 5 290 6 266 4 126 3 146
1004 0.38911876842887477 1.0740414179184683 0.1901341882784221 174 172 175 1.0539244907624594 25 289 26 301 27 233 13 141 28 205 14 125 16 321 15 353 30 253 2 369 1 353 5 289 6 265 4 125 29 277 3 145
1000 -0.065033831692838009 0.53067026216821622 0.68051800395386697 165 170 176 0.86923365311732581 25 285 26 297 13 137 27 229 28 201 14 121 16 317 15 349 29 273 30 249 2 365 1 349 5 285 6 261 4 121 3 141
985 1.6464071982772117 0.84980749535616862 0.87872321468306558 167 161 165 0.74409353765823916 25 222 26 222
983 1.6569931388137007 0.79447050666142394 0.75885377979478119 198 196 200 0.45424562375019556 25 220 26 220 13 60 27 212 28 184 14 40 16 240 15 268 2 272 1 284
981 1.4636301877920219 0.52942872730097468 0.99388146304959846 179 178 183 0.709811562269556 25 218 26 218
979 1.4258193631663234 0.4714448557310692 0.91830769889754016 170 169 174 1.6744176742733208 25 216 26 216
972 2.2234980784907616 1.8159735331007469 0.31432308847052193 132 131 129 0.4773116460283709 25 199 26 199 16 203 15 219 2 211 1 223
959 2.4306258514424193 1.4641548880529984 -0.20448844196060365 176 174 179 0.4113529977200015 25 186 26 186 15 198 2 186 1 198
940 1.0526946303607032 2.1600036453531311 -0.38750501874511412 146 149 155 0.97598842670043373 25 123 26 123 13 43 27 131 28 123 14 27 16 135 15 135 30 83 2 115 1 127 5 99 6 99 4 99 3 103
928 1.506137074920167 2.2158904005155775 -1.12032587529672 135 130 136 0.73328880485022407 25 111 26 111 27 115 28 111 16 119 15 119 2 99 1 111
921 1.0540314705320222 1.5130285165760333 -0.70427326360456355 186 176 175 1.2158610992462784 25 104 26 104 27 108 13 28 28 104 14 16 16 112 15 112 29 80 30 76 2 92 1 104 5 88 6 92 3 96
920 1.3553825275875102 1.8726426364243081 -1.035986345560757 138 136 141 0.51024814842927546 25 103 26 103 27 107 28 103 16 111 15 111 2 91 1 103
919 1.2573699494123269 1.8080701350050317 -0.904085543207784 143 144 148 0.47592772112299903 25 102 26 102 27 106 28 102 16 110 15 110 2 90 1 102
912 1.2047444620157597 1.5287087065445382 -0.95236548446290403 174 163 161 0.38654265458098941 25 95 26 95 13 27 27 103 28 99 16 103 15 103 2 83 1 95
898 0.65748430284525883 2.368033490776571 -1.2108463468568484 214 212 222 0.40831020295893733 25 81 26 81 2 65 11 37 1 77 12 37
878 -0.063282046491460506 2.6285007351453129 -1.1191315024142394 199 196 188 0.646213161168257 25 45 26 45 13 21 27 45 28 45 14 13 16 45 15 45 29 29 2 25 1 37 5 37 6 41 4 45 3 45
874 0.23969437616534339 2.8304858467172882 -1.5253057063265285 188 192 186 0.91656928793530168 25 41 26 41 27 41 28 41 16 41 15 41 1 33 5 33 6 37 4 41 3 41
872 -0.12049458435998479 2.5049068818262019 -1.0888032967818988 145 153 172 0.56470222146585491 25 39 26 39 13 19 27 39 28 39 14 11 16 39 15 39 30 23 23 19 24 11 2 23 1 31 5 31 4 39 3 39
870 -0.21728272298816206 2.2836114023706702 -1.0338133868444495 194 193 195 0.98041591582874188 25 37 26 37 13 17 27 37 28 37 14 9 16 37 15 37 30 21 23 17 24 9 2 21 1 29 5 29 6 33 4 37 3 37
867 0.086539656147693197 2.6407735083307502 -1.3673011233743972 80 75 47 0.53196937114560128 25 34 26 34 27 34 13 14 28 34 16 34 15 34 29 22 2 18 1 26 4 34 3 34
863 0.38722643811926588 2.8407518993512793 -1.7746166669942336 130 109 81 0.7810724186117437 25 30 26 30 27 30 28 30 16 30 15 30 5 26 4 30 3 30
854 0.23829093517965677 2.3384739204126714 -1.7668796409646756 176 181 201 0.44780822597539294 25 21 26 21 27 21 28 21 16 21 15 21 29 13 1 17 4 21 3 21
853 0.3348558735494212 2.4051321577907112 -1.8989439189107384 164 184 208 0.87411199612266532 25 20 26 20 27 20 28 20 16 20 15 20 1 16 6 20 4 20 3 20
852 -0.11985524342967331 2.0164405880179888 -1.3284589458987299 159 169 177 0.45305547456052481 25 19 26 19 13 7 27 19 28 19 14 3 16 19 15 19 29 11 30 15 23 11 24 3 2 11 1 15 5 19 4 19 3 19
851 -0.21590909403935232 1.9511313971150814 -1.1974980462095202 72 67 71 0.79812268013379939 25 18 26 18 13 6 27 18 28 18 14 2 16 18 15 18 29 10 30 14 23 10 24 2 2 10 1 14 5 18 6 18 4 18 3 18
850 -0.21623624124159244 1.7935994912555946 -1.2743826785740158 192 191 207 0.61923594355744638 25 17 26 17 13 5 27 17 28 17 14 1 16 17 15 17 29 9 30 13 23 9 24 1 2 9 1 13 5 17 6 17 4 17 3 17
849 -0.11973207322935631 1.8579838890313145 -1.405959523882127 189 203 216 0.46609499798836823 25 16 26 16 27 16 13 4 28 16 14 0 16 16 15 16 30 12 23 8 24 0 2 8 1 12 5 16 4 16 3 16
848 0.1836605352148038 2.2173293968288474 -1.7374023230197475 113 148 189 0.38291666163024046 25 15 26 15 27 15 28 15 16 15 15 15 30 11 23 7 2 7 1 11 4 15 3 15
844 0.48424268810735738 2.4176888757366939 -2.1473535999672935 134 136 160 0.77684361524590351 25 11 26 11 27 11 28 11 16 11 15 11 5 11 6 11 4 11 3 11
843 0.3886285110316241 2.3511675413517978 -2.0131608124405869 124 111 67 0.37597041173418888 25 10 26 10 27 10 28 10 16 10 15 10 6 10 4 10 3 10
841 0.48506199193738936 2.2608043467074364 -2.2240818601871997 166 185 215 0.33531129057992526 25 8 26 8 27 8 28 8 16 8 15 8 5 8 6 8 4 8 3 8
840 0.032134680257405276 1.8728153345024012 -1.6540022198944737 126 157 173 0.56076455669199265 25 7 26 7 13 3 27 7 28 7 16 7 15 7 29 7 30 7 23 3 2 3 1 7 5 7 6 7 4 7 3 7
837 0.031839911831753304 1.7144829626712861 -1.7314701071300918 176 200 228 0.47138143116186387 25 4 26 4 13 0 27 4 28 4 16 4 15 4 29 4 23 0 2 0 1 4 5 4 6 4 4 4 3 4
836 0.3316409953162015 2.0732632967835638 -2.063322589847993 101 141 177 0.7639840888949927 25 3 26 3 27 3 28 3 16 3 15 3 29 3 30 3 1 3 4 3 3 3
833 0.33451476017819204 1.9158670820400605 -2.139262376195822 148 173 206 0.62693371379363294 25 0 26 0 27 0 28 0 16 0 15 0 29 0 30 0 1 0 5 0 4 0 3 0
831 0.45039808772433726 1.5671994356239234 1.5713420776404263 175 169 171 0.60391279930377317 35 1222 25 1153 26 1206 13 930 27 1026 28 1026 14 962 16 950 15 990 29 1182 30 1186 23 838 24 822 33 1010 34 1018 36 1178 32 1194 22 950 21 962 20 954 31 1162 19 942 17 818 18 802 40 594 39 594 38 582 37 582 4 426 10 422 3 418
829 0.40196078011489911 1.6744617627946905 1.3526469930577454 171 167 166 0.42080229551030507 35 1220 25 1151 26 1204 13 928 27 1024 28 1024 14 960 16 948 15 988 29 1180 30 1184 23 836 24 820 33 1008 34 1016 36 1176 32 1192 22 948 21 960 20 952 31 1160 19 940 17 816 18 800 40 592 39 592 38 580 37 580 4 424 10 420 3 416
828 0.84975867228250879 1.8312708337056554 1.0334043247797231 153 157 158 0.55681861833385804 35 1219 25 1150 26 1203 13 927 27 1023 28 1023 14 959 16 947 15 987 29 1179 30 1183 23 835 24 819 33 1007 34 1015 36 1175 32 1191 22 947 21 959 20 951 31 1159 19 939 17 815 18 799 40 591 39 591 38 579 37 579 9 427 4 423 3 415
827 0.75193029903992781 1.7673416898535401 1.1641228555952234 149 153 152 0.78965704504211853 35 1218 25 1149 26 1202 13 926 27 1022 28 1022 14 958 16 946 15 986 29 1178 30 1182 23 834 24 818 33 1006 34 1014 36 1174 32 1190 22 946 21 958 20 950 31 1158 19 938 17 814 18 798 40 590 39 590 38 578 37 578 9 426 4 422 3 414
826 0.60678016056571915 1.8091084687986807 1.0769004703703247 149 154 149 0.75628756009303533 35 1217 25 1148 26 1201 13 925 27 1021 28 1021 14 957 16 945 15 985 29 1177 30 1181 23 833 24 817 33 1005 34 1013 36 1173 32 1189 22 945 21 957 20 949 31 1157 19 937 17 813 18 797 40 589 39 589 38 577 37 577 9 425 4 421 3 413
825 0.70441899370847727 1.874059192741595 0.94597541563226062 153 157 156 0.51323442575350742 35 1216 25 1147 26 1200 13 924 27 1020 28 1020 14 956 16 944 15 984 29 1176 30 1180 23 832 24 816 33 1004 34 1012 36 1172 32 1188 22 944 21 956 20 948 31 1156 19 936 17 812 18 796 40 588 39 588 38 576 37 576 9 424 4 420 3 412
824 0.16658847389001591 1.5984074090235796 1.5079294234660203 179 170 173 0.57635674078563059 35 1215 25 1146 26 1199 13 923 27 1019 28 1019 14 955 16 943 15 983 29 1175 30 1179 23 831 24 815 33 1003 34 1011 36 1171 32 1187 22 943 21 955 20 947 31 1155 19 935 17 811 18 795 40 587 39 587 38 575 37 575 4 419 3 411
823 0.069908162939671781 1.5335987277726737 1.6400139535013265 158 146 148 0.41518485763176277 35 1214 25 1145 26 1198 13 922 27 1018 28 1018 14 954 16 942 15 982 29 1174 30 1178 23 830 24 814 33 1002 34 1010 36 1170 32 1186 22 942 21 954 20 946 31 1154 19 934 17 810 18 794 40 586 39 586 38 574 37 574 4 418 3 410
822 -0.074693507853158175 1.5767815803393037 1.5530830657500421 172 161 166 0.93456907851199822 35 1213 25 1144 26 1197 13 921 27 1017 28 1017 14 953 16 941 15 981 29 1173 30 1177 23 829 24 813 33 1001 34 1009 36 1169 32 1185 22 941 21 953 20 945 31 1153 19 933 17 809 18 793 40 585 39 585 38 573 37 573 4 417 3 409
821 0.021391506808857281 1.6410623433398122 1.4211928446950812 171 160 164 0.32597306928829095 35 1212 25 1143 26 1196 13 920 27 1016 28 1016 14 952 16 940 15 980 29 1172 30 1176 23 828 24 812 33 1000 34 1008 36 1168 32 1184 22 940 21 952 20 944 31 1152 19 932 17 808 18 792 40 584 39 584 38 572 37 572 4 416 3 408
820 0.46938639006359201 1.7990688742138852 1.0996837178591128 137 139 136 0.80515954728826966 35 1211 25 1142 26 1195 13 919 27 1015 28 1015 14 951 16 939 15 979 29 1171 30 1175 23 827 24 811 33 999 34 1007 36 1167 32 1183 22 939 21 951 20 943 31 1151 19 931 17 807 18 791 40 583 39 583 38 571 37 571 4 415 3 407
819 0.37277030704049491 1.7343827571065669 1.2311563568149781 167 166 164 0.65133628699967017 35 1210 25 1141 26 1194 13 918 27 1014 28 1014 14 950 16 938 15 978 29 1170 30 1174 23 826 24 810 33 998 34 1006 36 1166 32 1182 22 938 21 950 20 942 31 1150 19 930 17 806 18 790 40 582 39 582 38 570 37 570 4 414 3 406
818 0.22676514207249626 1.7769176395457711 1.1442120476416384 205 204 209 0.35039547378691138 35 1209 25 1140 26 1193 13 917 27 1013 28 1013 14 949 16 937 15 977 29 1169 30 1173 23 825 24 809 33 997 34 1005 36 1165 32 1181 22 937 21 949 20 941 31 1149 19 929 17 805 18 789 40 581 39 581 38 569 37 569 4 413 3 405
817 0.32442883499080849 1.8416693202642518 1.0127512621168786 167 169 167 0.44443604488572852 35 1208 25 1139 26 1192 13 916 27 1012 28 1012 14 948 16 936 15 976 29 1168 30 1172 23 824 24 808 33 996 34 1004 36 1164 32 1180 22 936 21 948 20 940 31 1148 19 928 17 804 18 788 40 580 39 580 38 568 37 568 4 412 3 404
816 0.77236160218058747 1.9984387085572208 0.69378300757564071 146 150 151 0.50357207353696232 35 1207 25 1138 26 1191 13 915 27 1011 28 1011 14 947 16 935 15 975 29 1167 30 1171 23 823 24 807 33 995 34 1003 36 1163 32 1179 22 935 21 947 20 939 31 1147 19 927 17 803 18 787 40 579 39 579 38 567 37 567 4 411 3 403
815 0.67469589232524307 1.9334968768769762 0.82497423174089723 152 156 155 0.42243043732876018 35 1206 25 1137 26 1190 13 914 27 1010 28 1010 14 946 16 934 15 974 29 1166 30 1170 23 822 24 806 33 994 34 1002 36 1162 32 1178 22 934 21 946 20 938 31 1146 19 926 17 802 18 786 40 578 39 578 38 566 37 566 4 410 3 402
814 0.52883944015055329 1.9767237642816655 0.73751168136848477 165 169 168 0.32680591103865175 35 1205 25 1136 26 1189 13 913 27 1009 28 1009 14 945 16 933 15 973 29 1165 30 1169 23 821 24 805 33 993 34 1001 36 1161 32 1177 22 933 21 945 20 937 31 1145 19 925 17 801 18 785 40 577 39 577 38 565 37 565 4 409 3 401
813 0.62672135453353706 2.0414814235755392 0.6068023663433153 170 174 177 0.5556607125962546 35 1204 25 1135 26 1188 13 912 27 1008 28 1008 14 944 16 932 15 972 29 1164 30 1168 23 820 24 804 33 992 34 1000 36 1160 32 1176 22 932 21 944 20 936 31 1144 19 924 17 800 18 784 40 576 39 576 38 564 37 564 4 408 3 400
